VERSION 0.7
FIELDS x y z intensity
SIZE 4 4 4 4
TYPE F F F F
COUNT 1 1 1 1
WIDTH 1204
HEIGHT 1
VIEWPOINT 0 0 0 1 0 0 0
POINTS 1204
DATA ascii
-1.442687 3.257327 -0.819485 7.000000
-1.328972 3.000807 -0.834962 14.000000
-1.205984 2.723366 -0.831656 12.000000
-1.109446 2.505592 -0.830354 13.000000
-1.036927 2.342003 -0.838895 12.000000
-0.973690 2.199350 -0.847099 13.000000
-0.919105 2.076215 -0.854264 11.000000
-6.375211 14.625834 3.797234 15.000000
-7.259269 16.653612 3.874723 17.000000
-7.032827 16.134220 3.319471 14.000000
-7.256773 16.647888 2.974608 4.000000
-13.744880 31.529764 3.935308 22.000000
-6.892763 15.812952 1.544171 1.000000
-8.558615 19.633942 1.384037 31.000000
-8.571571 19.663662 0.860915 34.000000
-8.571450 19.663383 0.332980 21.000000
-8.573715 19.668581 -0.198333 9.000000
-6.916350 15.867054 -0.588782 21.000000
-4.789256 10.988103 -0.700708 4.000000
-3.468681 7.959079 -0.720116 9.000000
-2.744101 6.297099 -0.740872 3.000000
-2.333657 5.355658 -0.772212 5.000000
-2.012418 4.618826 -0.790084 5.000000
-1.789219 4.106872 -0.812039 5.000000
-1.599528 3.671772 -0.822511 10.000000
-1.426956 3.275942 -0.821961 11.000000
-1.315955 3.021338 -0.838429 9.000000
-1.193484 2.740423 -0.834629 13.000000
-1.097874 2.521121 -0.833269 9.000000
-1.019501 2.341356 -0.836392 11.000000
-0.959047 2.202691 -0.846097 15.000000
-9.256227 21.594795 5.012075 20.000000
-6.770697 15.796841 3.241378 8.000000
-7.112105 16.593237 2.956974 19.000000
-6.903343 16.106262 2.435608 1.000000
-6.486162 15.133111 1.882827 17.000000
-6.697497 15.626088 1.521861 7.000000
-18.567253 43.314465 0.731847 13.000000
-6.844851 15.969819 -0.591028 15.000000
-4.720170 11.013613 -0.700474 4.000000
-3.419780 7.980213 -0.720116 10.000000
-2.705019 6.312904 -0.740765 3.000000
-2.299189 5.366231 -0.771687 6.000000
-1.988710 4.641983 -0.791949 4.000000
-1.772515 4.137667 -0.815977 6.000000
-1.575038 3.677017 -0.821501 12.000000
-1.411051 3.294487 -0.824437 9.000000
-1.293193 3.019561 -0.835705 10.000000
-1.176267 2.746810 -0.834359 12.000000
-1.080122 2.522535 -0.831520 12.000000
-1.009606 2.358043 -0.840147 18.000000
-0.944028 2.205069 -0.844760 13.000000
-0.896505 2.094214 -0.857099 14.000000
-6.273452 14.888525 3.845206 3.000000
-9.088608 21.568274 4.992869 20.000000
-7.204864 17.098562 3.499587 18.000000
-7.018205 16.655661 2.960371 18.000000
-6.845161 16.245066 2.450214 16.000000
-6.395886 15.179033 1.883623 7.000000
-6.712507 15.930305 1.547473 8.000000
-18.294529 43.411911 0.731583 27.000000
-12.179463 28.902199 -0.289984 5.000000
-6.729267 15.970074 -0.589496 11.000000
-4.650565 11.037768 -0.700182 4.000000
-3.369588 7.998291 -0.719868 9.000000
-2.670094 6.338544 -0.741840 3.000000
-2.261600 5.369276 -0.770110 6.000000
-1.962492 4.659560 -0.792881 5.000000
-1.745565 4.144838 -0.815261 5.000000
-1.549024 3.678489 -0.819684 13.000000
-1.395729 3.314755 -0.827364 9.000000
-1.262977 2.999762 -0.828027 18.000000
-1.154156 2.741554 -0.830575 19.000000
-1.062395 2.523826 -0.829771 9.000000
-0.995487 2.365068 -0.840460 16.000000
-0.934872 2.221243 -0.848770 17.000000
-6.116458 14.768563 3.804419 10.000000
-7.056671 17.038298 3.933386 16.000000
-7.170513 17.313122 3.534460 16.000000
-8.832135 21.324385 3.781223 18.000000
-6.294264 15.197799 1.881121 11.000000
-6.616921 15.976714 1.548009 10.000000
-6.572630 15.869793 -0.584290 12.000000
-4.577784 11.054106 -0.699423 5.000000
-3.318160 8.013291 -0.719371 10.000000
-2.632293 6.357564 -0.742162 3.000000
-2.227853 5.381220 -0.769847 7.000000
-1.934999 4.674252 -0.793348 4.000000
-1.711440 4.134565 -0.811145 5.000000
-1.520427 3.673447 -0.816453 17.000000
-1.365669 3.299853 -0.821511 7.000000
-1.245288 3.009245 -0.828522 16.000000
-1.139892 2.754811 -0.832467 20.000000
-1.050550 2.539135 -0.832686 9.000000
-0.981684 2.372887 -0.841086 16.000000
-0.918701 2.220842 -0.846431 9.000000
-0.879685 2.126656 -0.865956 13.000000
-6.099444 14.986914 3.851000 5.000000
-6.964161 17.111168 3.940275 8.000000
-7.125648 17.507874 3.565252 8.000000
-8.709682 21.399197 3.784944 25.000000
-6.205014 15.246255 1.882372 16.000000
-6.769239 16.632326 1.607533 4.000000
-19.805790 48.657776 3.396219 18.000000
-18.464787 45.363480 1.966506 14.000000
-19.560133 48.054298 0.805736 17.000000
-6.474001 15.907046 -0.584188 12.000000
-4.509871 11.081986 -0.699423 5.000000
-3.267802 8.030731 -0.719123 10.000000
-2.585362 6.354258 -0.739905 3.000000
-2.184327 5.369080 -0.766168 5.000000
-1.907399 4.688781 -0.793814 5.000000
-1.675652 4.119473 -0.806133 5.000000
-1.500074 3.688150 -0.817665 15.000000
-1.352376 3.325316 -0.825788 11.000000
-1.227896 3.019521 -0.829265 13.000000
-1.124056 2.764429 -0.833278 12.000000
-1.033147 2.541103 -0.831229 16.000000
-0.970686 2.387662 -0.844216 13.000000
-0.903280 2.222072 -0.844760 13.000000
-5.979918 14.955413 3.833387 18.000000
-6.858311 17.151760 3.939857 11.000000
-8.397383 21.000078 4.266424 5.000000
-8.798450 22.002913 3.882171 11.000000
-6.217968 15.550636 1.915238 18.000000
-6.676304 16.696669 1.609764 3.000000
-8.870205 22.182333 1.543883 32.000000
-8.878317 22.202616 -0.221052 5.000000
-6.345472 15.869450 -0.581364 6.000000
-4.449574 11.128915 -0.700650 5.000000
-3.218835 8.051557 -0.719205 8.000000
-2.543002 6.361694 -0.738938 4.000000
-2.157600 5.398029 -0.768402 6.000000
-1.886664 4.720575 -0.797233 5.000000
-1.644498 4.115061 -0.803270 4.000000
-1.470869 3.680916 -0.814030 6.000000
-1.328690 3.325410 -0.823762 12.000000
-1.207547 3.022501 -0.828027 15.000000
-1.107430 2.772168 -0.833548 20.000000
-1.020022 2.553612 -0.833269 13.000000
-0.954960 2.390928 -0.843277 13.000000
-0.889278 2.226697 -0.844426 8.000000
-5.899778 15.021702 3.841035 18.000000
-6.660328 16.957766 3.885787 1.000000
-8.631610 21.975876 4.453959 5.000000
-6.431984 16.376490 2.881748 1.000000
-6.070124 15.455337 1.898862 12.000000
-6.548602 16.673353 1.603606 19.000000
-8.761295 22.306002 1.548723 5.000000
-8.728676 22.222965 0.958315 14.000000
-8.748914 22.274485 0.371517 19.000000
-8.737895 22.246435 -0.220950 19.000000
-6.164298 15.695065 -0.573572 43.000000
-4.384489 11.164371 -0.701176 5.000000
-3.177751 8.092489 -0.721110 10.000000
-2.517006 6.410491 -0.742807 2.000000
-2.123350 5.408398 -0.768008 6.000000
-1.848995 4.709996 -0.793503 4.000000
-1.621376 4.130569 -0.804344 7.000000
-1.447181 3.687137 -0.813424 7.000000
-1.310398 3.338941 -0.825113 8.000000
-1.186499 3.023541 -0.826293 12.000000
-1.087583 2.771742 -0.831386 11.000000
-1.007132 2.566945 -0.835602 9.000000
-0.939924 2.395859 -0.842964 9.000000
-0.875943 2.232989 -0.844760 11.000000
-0.838682 2.138136 -0.864185 12.000000
-5.817999 15.084847 3.847987 10.000000
-6.205223 16.088623 3.677648 1.000000
-8.744175 22.670179 4.583806 6.000000
-6.241519 16.182713 2.840819 14.000000
-6.104622 15.827841 1.940030 3.000000
-6.457644 16.742956 1.606462 21.000000
-8.558177 22.188030 1.536849 13.000000
-9.858396 25.558500 1.099619 11.000000
-9.873067 25.596533 0.425944 21.000000
-9.862679 25.569603 -0.253372 12.000000
-6.128309 15.889244 -0.579288 58.000000
-4.320215 11.202239 -0.701877 5.000000
-3.129830 8.116485 -0.721524 10.000000
-2.477624 6.425814 -0.742807 3.000000
-2.093693 5.430574 -0.769322 6.000000
-1.808327 4.690838 -0.788375 5.000000
-1.588565 4.121163 -0.800585 5.000000
-1.424178 3.695034 -0.813222 7.000000
-1.290237 3.347828 -0.825338 9.000000
-1.167227 3.028957 -0.825798 13.000000
-1.070209 2.777464 -0.831115 19.000000
-0.990330 2.570399 -0.834727 19.000000
-0.924864 2.400695 -0.842651 12.000000
-0.860190 2.233046 -0.842755 15.000000
-6.051956 15.982673 4.067684 11.000000
-6.097383 16.102615 3.672220 1.000000
-6.093174 16.091505 2.818170 18.000000
-6.358317 16.791578 1.607355 8.000000
-8.414097 22.219593 1.535430 22.000000
-9.701385 25.618507 1.099619 12.000000
-9.701658 25.619228 0.425322 7.000000
-9.720476 25.668915 -0.253760 7.000000
-6.059726 16.003187 -0.582078 9.000000
-4.251398 11.228537 -0.701877 5.000000
-3.081381 8.139263 -0.721855 10.000000
-2.440615 6.447404 -0.743559 3.000000
-2.050852 5.418287 -0.765774 6.000000
-1.781610 4.707388 -0.789307 4.000000
-1.560460 4.123472 -0.799153 5.000000
-1.402172 3.705535 -0.813626 5.000000
-1.262769 3.337458 -0.820835 11.000000
-1.153424 3.048746 -0.829265 9.000000
-1.052806 2.783078 -0.830845 13.000000
-0.977928 2.585373 -0.837643 12.000000
-0.909107 2.403660 -0.841712 9.000000
-0.849477 2.246215 -0.845763 12.000000
-0.803438 2.124655 -0.854619 10.000000
-5.955130 16.023153 4.068611 4.000000
-6.061846 16.310228 3.711051 5.000000
-8.470797 22.790514 4.586774 16.000000
-5.980914 16.092514 2.811861 16.000000
-8.310710 22.359865 3.316363 10.000000
-8.333180 22.420315 2.736094 8.000000
-10.510332 28.277042 2.701550 19.000000
-8.270995 22.253031 1.534204 28.000000
-20.446592 55.006439 2.356346 28.000000
-5.948533 16.005407 -0.580819 6.000000
-4.177899 11.242247 -0.701117 6.000000
-3.039716 8.180436 -0.723843 6.000000
-2.399969 6.459462 -0.743237 3.000000
-2.032766 5.471654 -0.771555 7.000000
-1.754069 4.721935 -0.789929 4.000000
-1.536501 4.136658 -0.799869 6.000000
-1.383163 3.724167 -0.815847 7.000000
-1.243625 3.348796 -0.821736 8.000000
-1.131319 3.046685 -0.826789 11.000000
-1.032355 2.780462 -0.828143 20.000000
-0.966045 2.602084 -0.841141 12.000000
-0.895003 2.410973 -0.842338 19.000000
-0.837649 2.256685 -0.847768 11.000000
-0.790060 2.128668 -0.854264 11.000000
-5.849368 16.039286 4.063513 15.000000
-5.950260 16.315878 3.703953 18.000000
-8.325072 22.826366 4.583620 20.000000
-8.100099 22.209606 3.872950 20.000000
-8.174713 22.414160 3.316915 24.000000
-8.008186 21.957632 2.092742 5.000000
-10.103684 27.702387 1.905845 15.000000
-9.420509 25.829479 -0.254186 11.000000
-5.839940 16.013437 -0.579799 5.000000
-4.107129 11.262981 -0.700825 5.000000
-2.990830 8.202679 -0.724174 5.000000
-2.344617 6.431102 -0.738293 4.000000
-1.991681 5.463535 -0.768665 5.000000
-1.726755 4.737249 -0.790706 5.000000
-1.507044 4.134917 -0.797722 7.000000
-1.362635 3.739024 -0.817261 6.000000
-1.222720 3.355449 -0.821511 9.000000
-1.119244 3.071773 -0.831742 10.000000
-1.016594 2.790362 -0.829224 12.000000
-0.949406 2.606165 -0.840558 11.000000
-0.879542 2.414635 -0.841712 13.000000
-0.829923 2.278606 -0.854116 8.000000
-0.768973 2.111513 -0.845407 14.000000
-5.741011 16.047398 4.056560 16.000000
-5.856625 16.370497 3.708128 17.000000
-8.032898 22.452354 4.498478 3.000000
-7.959348 22.246811 3.870847 19.000000
-7.890420 22.054182 2.097293 19.000000
-9.950999 27.812717 1.909201 13.000000
-10.021883 28.010813 -0.275054 14.000000
-5.741573 16.048969 -0.579799 6.000000
-4.014736 11.223115 -0.696793 38.000000
-2.942122 8.225567 -0.724588 5.000000
-2.304108 6.442559 -0.737970 3.000000
-1.967805 5.502721 -0.772475 7.000000
-1.709304 4.780309 -0.796145 4.000000
-1.477667 4.132970 -0.795574 4.000000
-1.340657 3.750081 -0.817867 6.000000
-1.198497 3.352797 -0.819034 11.000000
-1.097764 3.071285 -0.829761 13.000000
-0.999454 2.796547 -0.829224 14.000000
-0.932107 2.608339 -0.839392 13.000000
-0.863109 2.415515 -0.840147 9.000000
-0.811798 2.272119 -0.849772 14.000000
-0.758208 2.122355 -0.847887 12.000000
-5.699397 16.244635 3.671594 8.000000
-7.881967 22.464132 4.491058 6.000000
-7.854064 22.384621 3.886378 4.000000
-11.960588 34.086658 4.133186 30.000000
-10.294124 29.337866 2.784367 12.000000
-10.002540 28.506962 1.952631 23.000000
-10.031565 28.589672 1.216282 5.000000
-10.063270 28.680021 0.471921 3.000000
-9.840883 28.046303 -0.274804 18.000000
-5.649940 16.103701 -0.580513 4.000000
-3.937863 11.224931 -0.695390 67.000000
-2.897535 8.260390 -0.726078 5.000000
-2.272435 6.479091 -0.740550 3.000000
-1.934661 5.516562 -0.772738 7.000000
-1.685501 4.806553 -0.798787 6.000000
-1.468568 4.188376 -0.804523 6.000000
-1.313406 3.746223 -0.815241 3.000000
-1.185645 3.382153 -0.824437 8.000000
-1.074086 3.064250 -0.826046 11.000000
-0.984189 2.808077 -0.830845 14.000000
-0.914818 2.610399 -0.838226 15.000000
-0.851731 2.430623 -0.843590 21.000000
-0.796281 2.272611 -0.848102 10.000000
-0.748577 2.136673 -0.851784 11.000000
-5.602478 16.287622 3.673473 18.000000
-7.797491 22.667603 3.332623 7.000000
-7.592335 22.071301 2.669907 16.000000
-9.581206 27.852114 2.637653 21.000000
-9.691082 28.171476 1.925528 13.000000
-11.017749 32.027538 1.359713 11.000000
-11.037985 32.086357 0.526876 21.000000
-9.679996 28.139252 -0.275128 18.000000
-5.550698 16.137119 -0.580479 4.000000
-3.870213 11.252657 -0.695624 74.000000
-2.849390 8.285553 -0.726741 5.000000
-2.233607 6.495732 -0.740872 3.000000
-1.897550 5.518956 -0.771424 6.000000
-1.634123 4.753285 -0.788219 10.000000
-1.444762 4.202890 -0.805596 6.000000
-1.292944 3.761620 -0.816857 9.000000
-1.162018 3.381072 -0.822411 6.000000
-1.058416 3.079944 -0.828522 10.000000
-0.967253 2.814974 -0.831115 19.000000
-0.898162 2.614154 -0.837643 19.000000
-0.836801 2.435804 -0.843590 15.000000
-0.781708 2.275671 -0.847433 16.000000
-0.730585 2.127078 -0.846116 13.000000
-7.479821 22.185846 4.994539 22.000000
-7.457192 22.118738 4.403319 13.000000
-7.649714 22.689680 3.328902 9.000000
-7.431051 22.041214 2.660696 29.000000
-9.414902 27.924536 2.638992 20.000000
-9.496998 28.167999 1.921268 16.000000
-9.526005 28.254023 -0.275674 25.000000
-5.450939 16.168982 -0.580411 4.000000
-3.807475 11.295112 -0.696793 102.000000
-2.803273 8.317045 -0.727983 4.000000
-2.191484 6.502720 -0.740120 3.000000
-1.865551 5.536131 -0.772212 6.000000
-1.620078 4.808154 -0.795679 10.000000
-1.415488 4.201421 -0.803628 7.000000
-1.267648 3.762986 -0.815443 7.000000
-1.143429 3.394601 -0.823987 8.000000
-1.034544 3.071692 -0.824560 16.000000
-0.951809 2.826330 -0.832737 14.000000
-0.885161 2.628680 -0.840558 12.000000
-0.821839 2.440892 -0.843590 12.000000
-0.772850 2.295608 -0.853114 11.000000
-0.722300 2.145699 -0.851784 14.000000
-7.377297 22.333469 5.017503 24.000000
-7.349077 22.248053 4.420013 22.000000
-10.177616 30.809534 5.316640 9.000000
-7.143399 21.625502 3.166172 12.000000
-9.469860 28.667284 3.454030 9.000000
-9.512403 28.796055 2.715829 17.000000
-9.323983 28.225742 1.921268 13.000000
-10.190391 30.848202 1.304211 12.000000
-10.214625 30.921556 0.505642 12.000000
-9.462254 28.644258 -0.278911 15.000000
-5.354447 16.210663 -0.580717 4.000000
-3.753756 11.365657 -0.699715 65.000000
-2.764693 8.371940 -0.731295 4.000000
-2.144994 6.496221 -0.737863 4.000000
-1.837456 5.565358 -0.774709 6.000000
-1.585897 4.803934 -0.793348 9.000000
-1.377954 4.174528 -0.796827 8.000000
-1.246379 3.776273 -0.816655 9.000000
-1.120134 3.394152 -0.822186 11.000000
-1.019021 3.088101 -0.827284 6.000000
-0.935959 2.836688 -0.834088 13.000000
-0.870215 2.637695 -0.841724 18.000000
-0.806251 2.444086 -0.842964 14.000000
-0.753723 2.285093 -0.847433 14.000000
-0.709414 2.150978 -0.852139 13.000000
-7.257586 22.432283 5.029612 4.000000
-7.256294 22.428289 4.446910 20.000000
-9.263501 28.631269 3.442771 16.000000
-11.613885 35.894787 3.378897 17.000000
-9.144474 28.263432 1.919978 19.000000
-11.300315 34.925743 1.473727 10.000000
-11.306828 34.945869 0.570337 8.000000
-9.330648 28.838779 -0.280243 8.000000
-5.264111 16.271738 -0.581738 5.000000
-3.692245 11.414120 -0.701292 6.000000
-2.720635 8.411502 -0.733283 4.000000
-2.102644 6.501692 -0.737003 3.000000
-1.797169 5.557664 -0.772081 6.000000
-1.550916 4.796657 -0.790550 9.000000
-1.355645 4.193202 -0.798795 7.000000
-1.218360 3.768941 -0.813424 11.000000
-1.100486 3.404669 -0.823086 8.000000
-0.994982 3.078625 -0.823074 15.000000
-0.918536 2.842377 -0.834088 14.000000
-0.855487 2.647535 -0.843182 10.000000
-0.792116 2.451698 -0.843903 16.000000
-0.741139 2.294158 -0.849104 12.000000
-0.697067 2.157960 -0.853202 9.000000
-7.170180 22.635386 4.479187 8.000000
-11.467483 36.199139 4.344712 13.000000
-11.346190 35.816299 3.364886 12.000000
-8.990170 28.379894 1.924108 19.000000
-12.333978 38.934093 1.639713 16.000000
-12.336995 38.943615 0.634363 19.000000
-9.840603 31.064152 -0.301287 16.000000
-5.173829 16.334221 -0.582827 6.000000
-3.620632 11.431802 -0.701000 4.000000
-2.674390 8.445137 -0.734773 4.000000
-2.061210 6.509733 -0.736466 3.000000
-1.765130 5.575202 -0.773001 7.000000
-1.513399 4.780656 -0.786355 6.000000
-1.328405 4.196751 -0.797900 5.000000
-1.196099 3.779147 -0.814030 8.000000
-1.074278 3.394638 -0.819034 12.000000
-0.981048 3.100373 -0.827284 12.000000
-0.901950 2.850713 -0.834899 12.000000
-0.844137 2.668236 -0.848138 15.000000
-0.775337 2.451079 -0.842025 14.000000
-0.725625 2.294170 -0.847433 16.000000
-0.686637 2.171111 -0.856744 11.000000
-8.867179 28.600008 2.681471 25.000000
-8.837440 28.504101 1.928819 15.000000
-9.618419 31.022707 -0.300307 9.000000
-5.081795 16.392387 -0.583780 7.000000
-3.553377 11.463337 -0.701585 5.000000
-2.627834 8.478521 -0.736264 3.000000
-2.018284 6.512761 -0.735391 4.000000
-1.736172 5.602971 -0.775366 5.000000
-1.485208 4.793626 -0.786976 6.000000
-1.295345 4.181330 -0.793426 6.000000
-1.172018 3.783608 -0.813424 9.000000
-1.057180 3.413264 -0.821961 11.000000
-0.960571 3.101708 -0.826046 13.000000
-0.885297 2.858953 -0.835710 14.000000
-0.830582 2.682502 -0.851053 14.000000
-0.759720 2.453976 -0.841399 14.000000
-0.710976 2.296779 -0.846765 12.000000
-0.672748 2.173497 -0.856036 12.000000
-12.479509 41.140202 4.919243 15.000000
-8.717260 28.738705 2.689414 9.000000
-14.050514 46.318707 3.129055 18.000000
-12.710979 41.903202 1.758101 12.000000
-12.636093 41.656353 0.675991 6.000000
-9.443272 31.131857 -0.300797 13.000000
-4.987210 16.443344 -0.584494 8.000000
-3.485001 11.491611 -0.701994 6.000000
-2.580390 8.509745 -0.737589 4.000000
-1.980882 6.533585 -0.736358 3.000000
-1.708380 5.635337 -0.778388 11.000000
-1.452039 4.790360 -0.784956 5.000000
-1.274805 4.206146 -0.796648 5.000000
-1.145368 3.779482 -0.811001 9.000000
-1.034520 3.414093 -0.820610 11.000000
-0.950241 3.136284 -0.833724 9.000000
-0.869415 2.869859 -0.837331 17.000000
-0.814663 2.689379 -0.851636 18.000000
-0.743546 2.454956 -0.840147 12.000000
-0.699059 2.308314 -0.849438 13.000000
-0.660485 2.181163 -0.857453 8.000000
-10.437243 35.183960 4.199032 5.000000
-8.572205 28.897642 2.699319 14.000000
-15.697261 52.913429 3.568133 26.000000
-13.733945 46.295856 1.938895 35.000000
-13.743358 46.327583 0.750439 26.000000
-9.245531 31.167164 -0.300584 18.000000
-4.893044 16.496632 -0.585311 8.000000
-3.412720 11.507036 -0.701643 4.000000
-2.531528 8.536882 -0.738582 5.000000
-1.942452 6.551335 -0.737003 4.000000
-1.672360 5.640962 -0.777731 9.000000
-1.429642 4.822856 -0.788841 7.000000
-1.241417 4.188422 -0.791815 6.000000
-1.122713 3.788316 -0.811405 11.000000
-1.011057 3.411969 -0.818584 9.000000
-0.932632 3.147628 -0.835210 10.000000
-0.853159 2.879755 -0.838683 14.000000
-0.796513 2.688824 -0.849887 10.000000
-0.728739 2.460383 -0.840460 13.000000
-0.685686 2.315270 -0.850441 11.000000
-0.650547 2.196830 -0.862059 8.000000
-10.261842 35.387608 4.215750 6.000000
-10.310102 35.554008 3.315446 19.000000
-9.132107 31.492214 -0.303174 16.000000
-4.801196 16.558979 -0.586468 7.000000
-3.349280 11.552689 -0.703162 5.000000
-2.483541 8.567569 -0.739907 4.000000
-1.899724 6.554537 -0.736036 4.000000
-1.614798 5.572093 -0.766825 5.000000
-1.399748 4.830588 -0.788686 5.000000
-1.211584 4.181787 -0.789131 7.000000
-1.097538 3.788549 -0.809991 10.000000
-0.993088 3.428402 -0.821060 10.000000
-0.907364 3.132821 -0.829761 13.000000
-0.836546 2.888634 -0.839764 16.000000
-0.780000 2.693661 -0.849887 15.000000
-0.713099 2.462984 -0.839835 15.000000
-0.669892 2.314003 -0.848436 13.000000
-0.639139 2.207965 -0.864893 13.000000
-10.039909 35.433655 4.213816 12.000000
-13.865695 48.934299 0.789862 11.000000
-9.295031 32.805084 -0.315264 13.000000
-4.714215 16.640051 -0.588305 6.000000
-3.288129 11.607598 -0.705266 6.000000
-2.432826 8.589357 -0.740487 4.000000
-1.858387 6.562244 -0.735606 4.000000
-1.593551 5.627677 -0.773132 7.000000
-1.367658 4.830532 -0.787287 7.000000
-1.185097 4.186303 -0.788594 5.000000
-1.074271 3.795212 -0.809991 11.000000
-0.967783 3.419432 -0.817458 11.000000
-0.887332 3.135533 -0.829018 13.000000
-0.816968 2.887228 -0.837872 13.000000
-0.761110 2.690114 -0.847263 10.000000
-0.699786 2.473709 -0.842025 13.000000
-0.657737 2.325324 -0.851109 11.000000
-0.625834 2.212745 -0.865247 17.000000
-13.846908 50.036407 4.650327 19.000000
-13.759205 49.719517 3.335042 19.000000
-4.619756 16.696596 -0.589292 6.000000
-3.225631 11.659306 -0.707194 5.000000
-2.378216 8.597401 -0.739907 4.000000
-1.817821 6.572565 -0.735498 3.000000
-1.557668 5.632572 -0.772475 6.000000
-1.341945 4.853114 -0.789618 7.000000
-1.155452 4.179272 -0.785909 9.000000
-1.051747 3.804564 -0.810597 10.000000
-0.946264 3.423428 -0.817008 9.000000
-0.871177 3.152123 -0.831990 9.000000
-0.798467 2.889403 -0.837061 14.000000
-0.745865 2.699342 -0.848721 13.000000
-0.683834 2.475210 -0.841086 14.000000
-0.641445 2.322049 -0.848436 17.000000
-0.614241 2.223753 -0.868082 12.000000
-13.119574 48.565624 4.506023 22.000000
-15.097200 55.885670 0.899042 17.000000
-4.524259 16.750679 -0.590211 5.000000
-3.174860 11.755978 -0.711869 5.000000
-2.331657 8.634921 -0.741895 4.000000
-1.782126 6.600872 -0.737433 3.000000
-1.516873 5.619055 -0.769322 5.000000
-1.315233 4.872701 -0.791483 6.000000
-1.135175 4.206229 -0.789668 6.000000
-1.033747 3.830801 -0.814838 11.000000
-0.930068 3.447041 -0.821285 9.000000
-0.850556 3.152733 -0.830752 10.000000
-0.781225 2.896107 -0.837602 13.000000
-0.725796 2.690940 -0.844639 10.000000
-0.670863 2.487612 -0.843903 12.000000
-0.627923 2.328671 -0.849438 7.000000
-0.601804 2.231994 -0.869853 9.000000
-12.834027 48.693367 4.510485 28.000000
-14.810246 56.190605 3.756761 22.000000
-4.426997 16.799385 -0.590960 4.000000
-3.118697 11.836052 -0.715551 4.000000
-2.291839 8.699175 -0.746201 4.000000
-1.746152 6.628987 -0.739368 4.000000
-1.480092 5.619629 -0.768139 7.000000
-1.280022 4.860619 -0.788219 7.000000
-1.117620 4.244510 -0.795574 6.000000
-1.014217 3.852225 -0.818069 8.000000
-0.910639 3.459278 -0.822861 10.000000
-0.830208 3.154145 -0.829761 11.000000
-0.760250 2.888743 -0.834088 16.000000
-0.710246 2.699043 -0.845806 12.000000
-0.655345 2.490763 -0.843590 14.000000
-0.615304 2.338860 -0.851777 11.000000
-0.584999 2.223889 -0.865247 9.000000
-4.342247 16.897861 -0.593478 5.000000
-3.060925 11.912977 -0.719057 6.000000
-2.240403 8.720795 -0.746863 4.000000
-1.700742 6.621281 -0.737325 14.000000
-1.444842 5.625725 -0.767745 6.000000
-1.250174 4.868382 -0.788219 8.000000
-1.098413 4.277968 -0.800585 6.000000
-0.989829 3.855530 -0.817463 7.000000
-0.888183 3.460083 -0.821736 13.000000
-0.811562 3.161995 -0.830504 13.000000
-0.741791 2.890556 -0.833278 11.000000
-0.696291 2.713541 -0.849012 15.000000
-0.641704 2.501176 -0.845781 13.000000
-0.599768 2.338027 -0.850107 12.000000
-0.574834 2.241022 -0.870562 12.000000
-4.253296 16.983324 -0.595553 3.000000
-2.988499 11.934439 -0.719232 3.000000
-2.184187 8.723744 -0.745952 4.000000
-1.660082 6.631592 -0.737325 19.000000
-1.411260 5.638331 -0.768271 7.000000
-1.222199 4.883627 -0.789463 7.000000
-1.078360 4.309441 -0.805238 8.000000
-0.969724 3.875782 -0.820492 9.000000
-0.870487 3.479644 -0.825113 10.000000
-0.798031 3.190410 -0.836696 7.000000
-0.722871 2.890383 -0.831926 16.000000
-0.676606 2.705699 -0.845222 13.000000
-0.627961 2.511515 -0.847972 14.000000
-0.587702 2.350806 -0.853448 14.000000
-0.556301 2.225458 -0.863122 12.000000
-3.103069 12.722451 0.525333 43.000000
-4.157063 17.042114 -0.596710 5.000000
-2.918764 11.967099 -0.720109 4.000000
-2.129201 8.731173 -0.745456 4.000000
-1.625016 6.664834 -0.739905 9.000000
-1.382512 5.670961 -0.771555 7.000000
-1.190806 4.885276 -0.788530 8.000000
-1.051431 4.314065 -0.804880 8.000000
-0.945228 3.878804 -0.819886 8.000000
-0.850044 3.488706 -0.826013 10.000000
-0.777981 3.193364 -0.836200 10.000000
-0.706264 2.899441 -0.833278 12.000000
-0.656137 2.694002 -0.840266 12.000000
-0.612989 2.517166 -0.848598 15.000000
-0.574160 2.358030 -0.854784 11.000000
-0.536428 2.203392 -0.853202 7.000000
-4.057497 17.088692 -0.597459 4.000000
-2.846434 11.989639 -0.720401 4.000000
-2.074206 8.738256 -0.744959 12.000000
-1.580875 6.661138 -0.738400 4.000000
-1.344712 5.666799 -0.769847 7.000000
-1.168113 4.923246 -0.793503 4.000000
-1.021985 4.307991 -0.802554 8.000000
-0.920957 3.882625 -0.819482 9.000000
-0.830423 3.501440 -0.827814 9.000000
-0.759044 3.200905 -0.836943 16.000000
-0.689127 2.906530 -0.834088 16.000000
-0.639815 2.698908 -0.840558 15.000000
-0.597971 2.522728 -0.849224 13.000000
-0.560334 2.364260 -0.855787 12.000000
-0.528085 2.228478 -0.861705 9.000000
-3.955266 17.124952 -0.597867 4.000000
-2.774386 12.013688 -0.720810 4.000000
-2.025934 8.774121 -0.746946 42.000000
-1.535721 6.652307 -0.736358 3.000000
-1.312370 5.685568 -0.771293 7.000000
-1.141218 4.944759 -0.795834 4.000000
-0.993982 4.307471 -0.801301 7.000000
-0.895353 3.880569 -0.817867 8.000000
-0.806949 3.497925 -0.825788 14.000000
-0.740479 3.210222 -0.838182 14.000000
-0.673664 2.921023 -0.837061 14.000000
-0.623889 2.705579 -0.841433 15.000000
-0.582695 2.527275 -0.849537 13.000000
-0.547726 2.375918 -0.858794 6.000000
-0.502402 2.179742 -0.841510 8.000000
-3.851648 17.155725 -0.598105 4.000000
-2.703244 12.042173 -0.721511 5.000000
-1.971840 8.785415 -0.746863 12.000000
-1.497488 6.673245 -0.737648 3.000000
-1.276373 5.688677 -0.770636 7.000000
-1.120380 4.994077 -0.802672 6.000000
-0.966671 4.309649 -0.800585 7.000000
-0.870023 3.879301 -0.816453 8.000000
-0.786965 3.509465 -0.827364 12.000000
-0.718645 3.205252 -0.835705 10.000000
-0.655307 2.923223 -0.836521 16.000000
-0.607905 2.712156 -0.842307 10.000000
-0.567177 2.530803 -0.849537 12.000000
-0.531692 2.372797 -0.856455 17.000000
-0.487994 2.178221 -0.839738 7.000000
-3.749718 17.194658 -0.598650 4.000000
-2.632070 12.071213 -0.722271 4.000000
-1.917260 8.794428 -0.746615 4.000000
-1.461599 6.705621 -0.740227 3.000000
-1.240811 5.693496 -0.770242 6.000000
-1.084663 4.977694 -0.798942 6.000000
-0.940209 4.315499 -0.800585 6.000000
-0.844742 3.877868 -0.815040 10.000000
-0.767078 3.521843 -0.829165 11.000000
-0.702475 3.225693 -0.839916 7.000000
-0.640025 2.939417 -0.840034 13.000000
-0.589825 2.709293 -0.840266 8.000000
-0.551637 2.534236 -0.849537 19.000000
-0.517323 2.376935 -0.856789 12.000000
-0.481396 2.212239 -0.851784 8.000000
-3.658013 17.282852 -0.600930 21.000000
-2.559607 12.094949 -0.722738 4.000000
-1.868010 8.828450 -0.748519 4.000000
-1.422280 6.723217 -0.741195 3.000000
-1.204415 5.694213 -0.769322 6.000000
-1.048575 4.958162 -0.794746 5.000000
-0.914119 4.323112 -0.800943 8.000000
-0.819715 3.877229 -0.813828 8.000000
-0.746665 3.532203 -0.830515 11.000000
-0.678053 3.208143 -0.834219 9.000000
-0.620581 2.936696 -0.838142 14.000000
-0.573586 2.714733 -0.840849 8.000000
-0.535487 2.534785 -0.848598 18.000000
-0.503510 2.383753 -0.858126 10.000000
-0.462002 2.187705 -0.841156 9.000000
-3.566371 17.375460 -0.603380 10.000000
-2.493779 12.151498 -0.725192 4.000000
-1.813203 8.836817 -0.748271 3.000000
-1.379801 6.725974 -0.740550 2.000000
-1.178426 5.745195 -0.775234 6.000000
-1.017735 4.962567 -0.794435 4.000000
-0.887774 4.329603 -0.801122 6.000000
-0.797091 3.887942 -0.815040 6.000000
-0.725957 3.541490 -0.831641 9.000000
-0.655043 3.196109 -0.830009 11.000000
-0.605068 2.952709 -0.841656 12.000000
-0.558650 2.726634 -0.843473 9.000000
-0.519542 2.536163 -0.847972 13.000000
-0.486789 2.376642 -0.854450 17.000000
-0.454212 2.217979 -0.851784 12.000000
-6.804252 34.209343 -0.322507 10.000000
-3.465150 17.424461 -0.604332 4.000000
-2.425599 12.198881 -0.727121 6.000000
-1.756419 8.835070 -0.747195 4.000000
-1.343549 6.759666 -0.743344 3.000000
-1.143925 5.756207 -0.775760 6.000000
-0.990543 4.985189 -0.797077 5.000000
-0.862727 4.342689 -0.802554 7.000000
-0.774367 3.898523 -0.816251 7.000000
-0.705544 3.552567 -0.833217 14.000000
-0.636743 3.206720 -0.831742 11.000000
-0.583370 2.938424 -0.836521 17.000000
-0.542096 2.730949 -0.843765 10.000000
-0.504712 2.543029 -0.849224 15.000000
-0.472932 2.383282 -0.855787 12.000000
-0.442966 2.232648 -0.856390 9.000000
-3.372155 17.518019 -0.606850 5.000000
-2.357121 12.246864 -0.729108 4.000000
-1.702175 8.845681 -0.747195 6.000000
-1.301107 6.762901 -0.742807 3.000000
-1.111209 5.776745 -0.777599 7.000000
-0.960496 4.994083 -0.797543 5.000000
-0.838297 4.359494 -0.804702 7.000000
-0.752469 3.913780 -0.818472 9.000000
-0.678943 3.531954 -0.827364 17.000000
-0.615956 3.204858 -0.830256 15.000000
-0.566239 2.946676 -0.837872 14.000000
-0.527137 2.743617 -0.846680 7.000000
-0.489458 2.547943 -0.849850 9.000000
-0.429789 2.238078 -0.857453 11.000000
-3.270640 17.570803 -0.607973 4.000000
-2.284672 12.275819 -0.729984 4.000000
-1.651698 8.876533 -0.748933 4.000000
-1.263408 6.791283 -0.745064 3.000000
-1.077920 5.795150 -0.779176 5.000000
-0.933452 5.019306 -0.800651 6.000000
-0.813333 4.374228 -0.806491 7.000000
-0.729695 3.925064 -0.819886 8.000000
-0.663501 3.569579 -0.835243 11.000000
-0.600181 3.229532 -0.835705 9.000000
-0.549205 2.955774 -0.839494 13.000000
-0.510643 2.748680 -0.847263 12.000000
-0.473641 2.549964 -0.849537 14.000000
-0.443650 2.388906 -0.855787 16.000000
-0.418616 2.254463 -0.862767 15.000000
-3.160820 17.579720 -0.607599 5.000000
-2.210013 12.293536 -0.730218 3.000000
-1.593320 8.864923 -0.747112 6.000000
-1.225586 6.820435 -0.747428 3.000000
-1.043219 5.806533 -0.779833 5.000000
-0.901762 5.020078 -0.799874 4.000000
-0.785781 4.375262 -0.805775 6.000000
-0.705424 3.928503 -0.819684 8.000000
-0.640034 3.564952 -0.833217 10.000000
-0.581212 3.237921 -0.836943 10.000000
-0.530718 2.957193 -0.838953 13.000000
-0.495800 2.763059 -0.850762 17.000000
-0.458658 2.556562 -0.850789 13.000000
-0.428817 2.390656 -0.855453 21.000000
-0.406265 2.265273 -0.865956 11.000000
-3.051697 17.591890 -0.607361 5.000000
-2.133686 12.301947 -0.729926 5.000000
-1.539067 8.875514 -0.747195 6.000000
-1.186093 6.841540 -0.748933 3.000000
-1.004520 5.795244 -0.777468 5.000000
-0.868747 5.012864 -0.797854 4.000000
-0.758416 4.377093 -0.805238 6.000000
-0.681139 3.931792 -0.819482 9.000000
-0.619813 3.578412 -0.835468 12.000000
-0.561830 3.244290 -0.837686 11.000000
-0.512563 2.960393 -0.838953 11.000000
-0.479327 2.768877 -0.851636 10.000000
-0.445236 2.572428 -0.855171 15.000000
-0.415268 2.399742 -0.857792 17.000000
-0.392198 2.266802 -0.865602 13.000000
-1.358409 8.130299 0.737156 32.000000
-2.943698 17.610285 -0.607361 5.000000
-2.051083 12.272469 -0.727413 5.000000
-1.484743 8.885773 -0.747277 4.000000
-1.146060 6.860456 -0.750223 3.000000
-0.961748 5.758277 -0.771687 6.000000
-0.835528 5.003485 -0.795523 5.000000
-0.732193 4.385546 -0.805954 5.000000
-0.656678 3.933966 -0.819078 8.000000
-0.594792 3.563889 -0.831191 13.000000
-0.543032 3.254366 -0.839420 11.000000
-0.493436 2.957785 -0.837331 14.000000
-0.464853 2.786861 -0.856301 16.000000
-0.430070 2.578859 -0.856423 13.000000
-0.401158 2.405964 -0.859128 11.000000
-0.380749 2.283923 -0.871270 12.000000
-2.836859 17.635908 -0.607633 4.000000
-1.969556 12.246384 -0.725134 6.000000
-1.432885 8.911443 -0.748685 4.000000
-1.103785 6.866377 -0.750115 3.000000
-0.924035 5.749389 -0.769716 6.000000
-0.802614 4.994863 -0.793348 5.000000
-0.706052 4.394813 -0.806849 5.000000
-0.632371 3.936954 -0.818876 9.000000
-0.569662 3.547270 -0.826463 9.000000
-0.523053 3.257636 -0.839420 8.000000
-0.474819 2.957905 -0.836521 12.000000
-0.447441 2.787772 -0.855718 14.000000
-0.414088 2.580512 -0.856110 15.000000
-0.386238 2.407449 -0.858794 17.000000
-0.367026 2.288063 -0.871979 8.000000
-8.762030 56.670242 6.562091 24.000000
-6.945520 44.923172 4.071504 15.000000
-2.732411 17.677675 -0.608484 7.000000
-1.890868 12.235547 -0.723790 7.000000
-1.378178 8.920067 -0.748685 5.000000
-1.060418 6.865160 -0.749256 3.000000
-0.890558 5.766706 -0.771293 6.000000
-0.770441 4.989932 -0.791794 4.000000
-0.683583 4.428231 -0.812218 8.000000
-0.607005 3.933017 -0.817261 8.000000
-0.544759 3.530478 -0.821736 8.000000
-0.501130 3.248338 -0.836200 17.000000
-0.456661 2.960763 -0.836521 21.000000
-0.430034 2.788574 -0.855135 11.000000
-0.399117 2.588635 -0.857988 17.000000
-0.371459 2.409774 -0.858794 10.000000
-0.354408 2.299513 -0.875522 7.000000
-6.682170 45.048687 4.079090 17.000000
-8.530802 57.509277 3.758632 21.000000
-2.624625 17.699051 -0.608654 4.000000
-1.814877 12.240994 -0.723439 6.000000
-1.322542 8.922441 -0.748188 6.000000
-1.018711 6.874488 -0.749578 3.000000
-0.852975 5.757353 -0.769322 6.000000
-0.740824 5.001405 -0.792881 3.000000
-0.654666 4.420664 -0.810071 5.000000
-0.582286 3.932792 -0.816453 8.000000
-0.523515 3.536646 -0.822411 7.000000
-0.480763 3.248476 -0.835457 14.000000
-0.439333 2.969223 -0.838142 16.000000
-0.413618 2.795892 -0.856592 15.000000
-0.382389 2.585399 -0.856110 12.000000
-0.357357 2.416669 -0.860465 10.000000
-0.338645 2.290544 -0.871270 8.000000
-6.161824 43.373016 3.923809 14.000000
-1.010923 7.122788 0.288315 28.000000
-2.524553 17.775181 -0.610730 8.000000
-1.739312 12.248935 -0.723264 6.000000
-1.265948 8.917561 -0.747112 5.000000
-0.977910 6.890453 -0.750653 3.000000
-0.817633 5.762479 -0.769322 6.000000
-0.713040 5.026395 -0.796145 5.000000
-0.630851 4.447975 -0.814366 4.000000
-0.561727 3.961502 -0.821703 11.000000
-0.502901 3.547509 -0.824212 8.000000
-0.460140 3.246569 -0.834219 14.000000
-0.423138 2.986161 -0.842196 24.000000
-0.394975 2.787959 -0.853386 16.000000
-0.366385 2.586756 -0.855797 16.000000
-0.343052 2.422549 -0.861801 14.000000
-0.324453 2.291653 -0.870916 14.000000
-3.071718 22.621656 3.173750 15.000000
-5.896649 43.417904 3.924522 19.000000
-6.138560 45.198772 2.948687 12.000000
-2.418264 17.811134 -0.611444 7.000000
-1.664525 12.262344 -0.723439 6.000000
-1.211073 8.924173 -0.747029 5.000000
-0.936683 6.904205 -0.751513 4.000000
-0.783594 5.777210 -0.770636 6.000000
-0.679393 5.010119 -0.792881 5.000000
-0.603547 4.451762 -0.814366 5.000000
-0.482436 3.560182 -0.826463 7.000000
-0.440210 3.249331 -0.834219 13.000000
-0.403252 2.977253 -0.838953 19.000000
-0.377732 2.789382 -0.853094 14.000000
-0.351401 2.595543 -0.857988 9.000000
-0.328943 2.430212 -0.863806 11.000000
-0.312022 2.305647 -0.875522 8.000000
-2.935657 22.661688 3.176782 8.000000
-5.707720 44.051979 2.871507 15.000000
-7.507087 57.936573 0.907305 13.000000
-2.312014 17.849424 -0.612261 8.000000
-1.587713 12.260447 -0.722738 6.000000
-1.156036 8.929460 -0.746863 5.000000
-0.894685 6.912780 -0.751835 4.000000
-0.746220 5.767163 -0.768665 6.000000
-0.648512 5.013214 -0.792726 5.000000
-0.576599 4.458309 -0.814903 4.000000
-0.511686 3.957413 -0.819482 7.000000
-0.464714 3.594962 -0.833892 10.000000
-0.422506 3.269265 -0.838677 9.000000
-0.386832 2.993994 -0.843007 18.000000
-0.359749 2.785007 -0.851053 14.000000
-0.333515 2.582581 -0.852980 12.000000
-0.314025 2.432185 -0.863806 11.000000
-0.294984 2.285261 -0.867019 7.000000
-6.237738 50.574661 4.564387 18.000000
-5.454664 44.226810 2.880670 13.000000
-6.335972 51.370979 2.078273 17.000000
-4.416500 35.811104 -0.333635 15.000000
-2.205385 17.887079 -0.613077 8.000000
-1.510988 12.258068 -0.722037 7.000000
-1.098052 8.910669 -0.744710 5.000000
-0.852983 6.924060 -0.752480 4.000000
-0.713004 5.789342 -0.771030 6.000000
-0.616046 5.003373 -0.790550 5.000000
-0.548631 4.456881 -0.814008 6.000000
-0.489193 3.975059 -0.822511 9.000000
-0.442647 3.597745 -0.833892 10.000000
-0.399591 3.248719 -0.832733 10.000000
-0.368808 2.999177 -0.843818 11.000000
-0.341014 2.773871 -0.846972 11.000000
-0.317314 2.581751 -0.852041 19.000000
-0.297826 2.423776 -0.860131 11.000000
-0.280155 2.280531 -0.864539 8.000000
-6.013556 51.348354 2.075825 25.000000
-2.099195 17.931047 -0.614132 5.000000
-1.435397 12.264134 -0.721862 5.000000
-1.041153 8.898433 -0.743137 5.000000
-0.810134 6.926201 -0.752158 4.000000
-0.680005 5.815270 -0.773920 8.000000
-0.585105 5.005096 -0.790240 6.000000
-0.520358 4.452346 -0.812576 8.000000
-0.463768 3.969231 -0.820694 8.000000
-0.418410 3.582007 -0.829615 12.000000
-0.378297 3.239563 -0.829761 13.000000
-0.349838 2.996603 -0.842467 17.000000
-0.323765 2.774011 -0.846389 12.000000
-0.283497 2.430238 -0.861801 18.000000
-0.265831 2.279421 -0.863476 12.000000
-2.526311 22.786526 3.755824 8.000000
-3.605411 32.515156 3.742888 15.000000
-4.955418 44.686157 2.906419 13.000000
-4.952625 44.660973 1.804132 13.000000
-4.967153 44.791950 0.699849 9.000000
-4.078571 36.780933 -0.342182 12.000000
-1.990345 17.954515 -0.614507 6.000000
-1.364411 12.311407 -0.724141 30.000000
-0.986314 8.902673 -0.742971 5.000000
-0.766306 6.919184 -0.750868 4.000000
-0.643217 5.809480 -0.772607 10.000000
-0.555907 5.022338 -0.792415 7.000000
-0.492920 4.454477 -0.812397 8.000000
-0.441240 3.988550 -0.824126 11.000000
-0.398894 3.606780 -0.834793 10.000000
-0.358092 3.238934 -0.829018 16.000000
-0.331657 3.000607 -0.843007 12.000000
-0.306421 2.773093 -0.845514 14.000000
-0.284770 2.577898 -0.849537 18.000000
-0.267644 2.423501 -0.858794 16.000000
-0.251015 2.273574 -0.860642 14.000000
-1.609683 15.383537 3.681129 2.000000
-2.477157 23.667866 5.076584 3.000000
-2.384598 22.783932 3.752912 6.000000
-2.388117 22.817533 3.189459 8.000000
-2.385539 22.792913 2.621461 5.000000
-4.677664 44.682571 1.803811 11.000000
-3.851769 36.795322 -0.342089 16.000000
-1.883575 17.999193 -0.615629 4.000000
-1.286349 12.295718 -0.722738 50.000000
-0.932915 8.920451 -0.743965 5.000000
-0.723422 6.919800 -0.750438 4.000000
-0.606836 5.806416 -0.771687 9.000000
-0.525801 5.032532 -0.793503 8.000000
-0.464657 4.448611 -0.810787 8.000000
-0.416350 3.987286 -0.823319 9.000000
-0.376654 3.608191 -0.834568 10.000000
-0.338716 3.245888 -0.830256 14.000000
-0.314042 3.010246 -0.845169 14.000000
-0.289400 2.774921 -0.845514 16.000000
-0.268947 2.579597 -0.849537 14.000000
-0.251591 2.413849 -0.854784 17.000000
-0.238520 2.289022 -0.865956 11.000000
-1.508966 15.329230 3.665833 14.000000
-2.284715 23.203779 4.973872 4.000000
-2.248817 22.839380 3.759707 19.000000
-2.242531 22.775574 3.181605 11.000000
-2.236970 22.719126 2.611340 8.000000
-3.101990 31.499853 2.834610 15.000000
-3.092564 31.404173 2.039621 19.000000
-3.513969 35.681812 -0.331526 23.000000
-1.775548 18.035276 -0.616480 4.000000
-1.212054 12.315301 -0.723439 21.000000
-0.878163 8.926007 -0.743965 12.000000
-0.681339 6.928066 -0.750868 4.000000
-0.570128 5.799178 -0.770242 9.000000
-0.492878 5.015018 -0.790240 7.000000
-0.433783 4.415151 -0.804165 12.000000
-0.391013 3.980994 -0.821501 10.000000
-0.351928 3.584254 -0.828489 14.000000
-0.318414 3.244049 -0.829265 15.000000
-0.296226 3.018823 -0.847061 9.000000
-0.272743 2.780453 -0.846680 14.000000
-0.253393 2.584034 -0.850476 19.000000
-0.236960 2.417223 -0.855453 16.000000
-0.224746 2.293234 -0.867019 10.000000
-1.416489 15.355637 3.670005 11.000000
-2.134475 23.132639 4.955709 2.000000
-2.109451 22.861593 3.761163 7.000000
-2.082821 22.573147 2.593030 20.000000
-2.907920 31.510359 2.833896 31.000000
-2.894768 31.367905 2.036071 8.000000
-3.492054 37.837532 1.525538 9.000000
-3.494540 37.864456 0.590467 12.000000
-3.205611 34.734859 -0.322535 10.000000
-1.667609 18.075687 -0.617501 5.000000
-1.144450 12.408990 -0.728523 7.000000
-0.823286 8.930235 -0.743882 12.000000
-0.639456 6.939046 -0.751620 5.000000
-0.536995 5.829219 -0.773789 12.000000
-0.463913 5.037621 -0.793348 11.000000
-0.405870 4.408913 -0.802554 10.000000
-0.366308 3.980392 -0.820896 13.000000
-0.330287 3.590226 -0.829390 13.000000
-0.298681 3.247871 -0.829761 12.000000
-0.277520 3.018666 -0.846520 13.000000
-0.254974 2.774454 -0.844348 15.000000
-0.237708 2.587432 -0.851102 9.000000
-0.221344 2.410185 -0.852445 8.000000
-0.210069 2.288052 -0.864539 11.000000
-1.308635 15.206061 3.632230 9.000000
-2.020947 23.475607 5.026480 8.000000
-2.020496 23.470375 4.443943 4.000000
-2.119612 24.621052 3.435690 8.000000
-1.953484 22.692404 2.605312 17.000000
-2.722299 31.617912 2.842017 13.000000
-2.703956 31.404961 2.037362 14.000000
-3.261280 37.875172 1.526220 7.000000
-2.891760 33.585251 -0.311684 11.000000
-1.557954 18.100515 -0.618011 4.000000
-1.069317 12.427714 -0.729225 6.000000
-0.767962 8.929161 -0.743385 15.000000
-0.596270 6.935906 -0.750868 4.000000
-0.501558 5.836355 -0.774315 12.000000
-0.431553 5.023642 -0.790706 10.000000
-0.379570 4.420142 -0.804165 14.000000
-0.341626 3.979637 -0.820290 10.000000
-0.309088 3.601893 -0.831641 12.000000
-0.278996 3.252538 -0.830504 13.000000
-0.259158 3.022231 -0.847061 13.000000
-0.238602 2.783590 -0.846680 19.000000
-0.221909 2.589788 -0.851415 14.000000
-0.206470 2.410559 -0.852111 14.000000
-0.195865 2.287434 -0.863830 14.000000
-1.214920 15.208957 3.631071 10.000000
-1.873358 23.443697 5.017086 7.000000
-1.985548 24.846802 4.702337 9.000000
-1.955080 24.465750 3.412266 22.000000
-1.899811 23.774534 2.728247 20.000000
-1.883311 23.568178 2.117015 22.000000
-3.032103 37.935520 2.459984 14.000000
-2.684913 33.593391 -0.311601 12.000000
-1.447021 18.111727 -0.618079 3.000000
-0.994712 12.454939 -0.730452 6.000000
-0.713795 8.941652 -0.744048 10.000000
-0.553304 6.934479 -0.750330 5.000000
-0.464789 5.827465 -0.772738 9.000000
-0.399382 5.009455 -0.788064 10.000000
-0.353147 4.431214 -0.805775 14.000000
-0.316889 3.977754 -0.819482 11.000000
-0.286516 3.597894 -0.830290 11.000000
-0.259420 3.259018 -0.831742 19.000000
-0.240993 3.028563 -0.848412 14.000000
-0.221289 2.782141 -0.845806 18.000000
-0.206090 2.592048 -0.851728 18.000000
-0.191901 2.414599 -0.853114 13.000000
-0.182571 2.297915 -0.867373 14.000000
-1.121361 15.213215 3.630376 16.000000
-1.719687 23.322107 4.988694 4.000000
-1.790029 24.275429 4.591968 10.000000
-1.854289 25.146320 4.130983 6.000000
-2.763645 37.470493 5.224759 10.000000
-1.752874 23.771872 2.726655 14.000000
-1.746213 23.681601 2.126207 13.000000
-2.796414 37.914597 2.457467 9.000000
-2.286779 31.007692 1.248147 20.000000
-2.287537 31.017969 0.482918 21.000000
-2.288230 31.027365 -0.287653 30.000000
-1.335642 18.117273 -0.617977 4.000000
-0.919300 12.474746 -0.731270 5.000000
-0.658403 8.938907 -0.743468 13.000000
-0.510818 6.938735 -0.750438 8.000000
-0.427783 5.813400 -0.770504 9.000000
-0.368782 5.013782 -0.788375 10.000000
-0.325227 4.423486 -0.803986 14.000000
-0.292548 3.980600 -0.819684 12.000000
-0.263574 3.587924 -0.827589 16.000000
-0.239703 3.264413 -0.832733 20.000000
-0.204707 2.790125 -0.847846 12.000000
-0.189902 2.589475 -0.850476 11.000000
-0.176874 2.412911 -0.852111 14.000000
-0.168606 2.300857 -0.868082 15.000000
-1.031669 15.274159 3.643354 16.000000
-1.081248 16.007359 3.421494 3.000000
-1.642635 24.309484 4.596419 8.000000
-1.676591 24.811636 4.074200 14.000000
-2.533746 37.487732 5.224897 13.000000
-2.670043 39.503387 4.530309 11.000000
-1.602888 23.721682 2.128885 12.000000
-2.966834 43.892498 0.683167 112.000000
-2.135721 31.601517 -0.292851 12.000000
-1.223844 18.116154 -0.617671 5.000000
-0.843008 12.484136 -0.731503 6.000000
-0.604148 8.951727 -0.744213 12.000000
-0.468702 6.948682 -0.751190 10.000000
-0.390968 5.799101 -0.768271 9.000000
-0.337345 5.006094 -0.786821 9.000000
-0.298543 4.432270 -0.805238 16.000000
-0.266664 3.960822 -0.815241 13.000000
-0.240699 3.576836 -0.824662 16.000000
-0.219734 3.266789 -0.832981 20.000000
-0.204394 3.039937 -0.850845 13.000000
-0.186809 2.779876 -0.844348 10.000000
-0.174202 2.593434 -0.851415 13.000000
-0.162574 2.421474 -0.854784 8.000000
-0.154169 2.297183 -0.866310 12.000000
-0.941748 15.342343 3.658186 12.000000
-1.359151 22.133989 4.730451 4.000000
-1.020926 16.630657 3.142323 19.000000
-1.471714 23.965519 3.933616 7.000000
-1.542448 25.116453 3.498522 5.000000
-1.871120 30.464348 3.491900 20.000000
-1.478017 24.068083 2.159138 21.000000
-1.911307 31.118229 2.015098 13.000000
-2.698318 43.923847 0.683384 154.000000
-1.933803 31.484276 -0.291649 14.000000
-1.125169 18.326820 -0.624613 23.000000
-0.766269 12.487081 -0.731387 5.000000
-0.549760 8.964218 -0.744959 11.000000
-0.426118 6.952419 -0.751298 10.000000
-0.360486 5.884506 -0.779308 11.000000
-0.306683 5.009056 -0.786976 9.000000
-0.272066 4.445802 -0.807386 19.000000
-0.242176 3.959451 -0.814636 14.000000
-0.218090 3.567549 -0.822186 19.000000
-0.199804 3.270010 -0.833476 19.000000
-0.184733 3.024798 -0.846250 12.000000
-0.170100 2.786698 -0.846097 14.000000
-0.158285 2.594454 -0.851415 11.000000
-0.147655 2.421485 -0.854450 10.000000
-0.140530 2.305553 -0.869145 10.000000
-0.847592 15.347833 3.658186 1.000000
-1.430945 25.896454 5.533154 10.000000
-0.893253 16.173506 3.054770 4.000000
-1.325399 23.987892 3.935881 10.000000
-1.336187 24.182976 3.367208 7.000000
-1.683775 30.468311 3.491104 20.000000
-1.329320 24.058798 2.157531 23.000000
-1.347072 24.379803 1.577957 5.000000
-2.432068 43.999477 0.684316 135.000000
-1.734123 31.378733 -0.290566 14.000000
-1.002101 18.141783 -0.618079 105.000000
-0.689580 12.490551 -0.731328 6.000000
-0.494361 8.960457 -0.744379 12.000000
-0.383231 6.950933 -0.750868 10.000000
-0.322183 5.847014 -0.774052 10.000000
-0.276214 5.015775 -0.787753 11.000000
-0.243967 4.432652 -0.804702 18.000000
-0.218417 3.970642 -0.816655 15.000000
-0.197057 3.584385 -0.825788 12.000000
-0.179789 3.272141 -0.833724 16.000000
-0.165692 3.017222 -0.843818 14.000000
-0.152100 2.771453 -0.841141 11.000000
-0.142206 2.592531 -0.850476 10.000000
-0.132534 2.417640 -0.852780 13.000000
-0.126329 2.305438 -0.868790 12.000000
-0.730863 14.894122 3.919083 1.000000
-0.746622 15.214777 3.625278 10.000000
-0.822955 16.767883 3.580364 14.000000
-1.220803 24.862646 4.696030 8.000000
-1.479114 30.118355 4.940834 8.000000
-1.236448 25.180975 3.505136 6.000000
-1.190073 24.237402 2.775897 10.000000
-1.505544 30.656116 2.748670 22.000000
-1.186188 24.158365 1.563114 11.000000
-2.178146 44.341137 0.689411 104.000000
-1.526239 31.077171 -0.287680 15.000000
-0.884290 18.015825 -0.613588 18.000000
-0.612926 12.494547 -0.731328 7.000000
-0.439225 8.960336 -0.744131 10.000000
-0.340867 6.959111 -0.751513 11.000000
-0.286155 5.845911 -0.773658 13.000000
-0.244851 5.005536 -0.785888 11.000000
-0.216329 4.425222 -0.803091 14.000000
-0.194386 3.978755 -0.818069 15.000000
-0.174677 3.577741 -0.823987 14.000000
-0.159851 3.276086 -0.834467 16.000000
-0.146986 3.014336 -0.842737 20.000000
-0.135562 2.781888 -0.844056 9.000000
-0.126202 2.591458 -0.849850 14.000000
-0.117373 2.411818 -0.850441 13.000000
-0.112227 2.307104 -0.869145 14.000000
-0.651079 15.168534 3.613226 9.000000
-0.721525 16.806814 3.587671 6.000000
-0.657394 15.315394 2.890792 8.000000
-0.713314 16.615866 2.723855 4.000000
-1.298498 30.224882 4.206489 8.000000
-1.362382 31.710548 3.631325 9.000000
-1.039245 24.195694 2.168508 10.000000
-1.045221 24.334679 1.574085 4.000000
-1.909855 44.442574 0.690793 53.000000
-1.304293 30.359653 -0.280955 11.000000
-0.776092 18.075830 -0.615459 13.000000
